ply
format ascii 1.0
element vertex 819
property float x
property float y
property float z
property float nx
property float ny
property float nz
end_header
-30.000000 14.615383 -10.000000 -1.000000 0.000000 0.000000
-30.000000 13.076921 -8.461538 -1.000000 0.000000 0.000000
-30.000000 14.615383 -5.384614 -1.000000 0.000000 0.000000
-30.000000 13.076921 -3.846153 -1.000000 0.000000 0.000000
-30.000000 14.615383 -0.769229 -1.000000 0.000000 0.000000
-30.000000 13.076921 0.769232 -1.000000 0.000000 0.000000
-30.000002 14.615385 3.846156 -1.000000 0.000000 0.000000
-30.000000 13.076922 5.384616 -1.000000 0.000000 0.000000
-30.000000 14.615383 8.461540 -1.000000 0.000000 0.000000
-30.000000 13.076921 10.000000 -1.000000 0.000000 0.000000
-30.000000 14.615383 13.076923 -1.000000 0.000000 0.000000
-30.000000 9.999999 -28.461536 -1.000000 0.000000 0.000000
-30.000000 8.461537 -26.923077 -1.000000 0.000000 0.000000
-30.000002 10.000002 -23.846155 -1.000000 0.000000 0.000000
-30.000000 8.461538 -22.307692 -1.000000 0.000000 0.000000
-29.999998 9.999998 -19.230768 -1.000000 0.000000 0.000000
-30.000002 8.461540 -17.692307 -1.000000 0.000000 0.000000
-30.000000 10.000000 -14.615383 -1.000000 0.000000 0.000000
-30.000000 8.461538 -13.076921 -1.000000 0.000000 0.000000
-30.000000 9.999999 -9.999999 -1.000000 0.000000 0.000000
-30.000000 8.461538 -8.461538 -1.000000 0.000000 0.000000
-30.000000 9.999999 -5.384614 -1.000000 0.000000 0.000000
-29.999998 8.461538 -3.846153 -1.000000 0.000000 0.000000
-30.000000 10.000000 -0.769229 -1.000000 0.000000 0.000000
-30.000000 8.461538 0.769232 -1.000000 0.000000 0.000000
-30.000000 10.000000 3.846157 -1.000000 0.000000 0.000000
-30.000000 8.461538 5.384617 -1.000000 0.000000 0.000000
-30.000000 10.000000 8.461540 -1.000000 0.000000 0.000000
-30.000000 5.384615 -28.461538 -1.000000 0.000000 0.000000
-30.000000 3.846152 -26.923077 -1.000000 0.000000 0.000000
-30.000000 5.384616 -23.846153 -1.000000 0.000000 0.000000
-30.000002 3.846153 -22.307693 -1.000000 0.000000 0.000000
-30.000000 5.384614 -19.230768 -1.000000 0.000000 0.000000
-30.000002 3.846153 -17.692307 -1.000000 0.000000 0.000000
-30.000000 5.384614 -14.615383 -1.000000 0.000000 0.000000
-30.000000 3.846152 -13.076922 -1.000000 0.000000 0.000000
-30.000000 5.384614 -9.999999 -1.000000 0.000000 0.000000
-30.000000 3.846152 -8.461538 -1.000000 0.000000 0.000000
-30.000000 5.384615 -5.384615 -1.000000 0.000000 0.000000
-30.000000 3.846152 -3.846154 -1.000000 0.000000 0.000000
-29.999998 5.384614 -0.769229 -1.000000 0.000000 0.000000
-30.000000 3.846152 0.769231 -1.000000 0.000000 0.000000
-30.000000 5.384616 3.846156 -1.000000 0.000000 0.000000
-30.000000 0.769229 -28.461536 -1.000000 0.000000 0.000000
-30.000000 -0.769231 -26.923077 -1.000000 0.000000 0.000000
-30.000000 0.769230 -23.846153 -1.000000 0.000000 0.000000
-30.000000 -0.769232 -22.307692 -1.000000 0.000000 0.000000
-30.000000 0.769229 -19.230770 -1.000000 0.000000 0.000000
-30.000000 -0.769231 -17.692307 -1.000000 0.000000 0.000000
-30.000000 0.769229 -14.615383 -1.000000 0.000000 0.000000
-30.000000 -0.769232 -13.076921 -1.000000 0.000000 0.000000
-30.000000 0.769229 -10.000000 -1.000000 0.000000 0.000000
-30.000000 -0.769232 -8.461538 -1.000000 0.000000 0.000000
-29.999998 0.769229 -5.384614 -1.000000 0.000000 0.000000
-30.000000 -0.769232 -3.846153 -1.000000 0.000000 0.000000
-30.000000 0.769230 -0.769230 -1.000000 0.000000 0.000000
-30.000000 -3.846157 -28.461540 -1.000000 0.000000 0.000000
-30.000000 -5.384617 -26.923077 -1.000000 0.000000 0.000000
-30.000000 -3.846156 -23.846153 -1.000000 0.000000 0.000000
-30.000000 -5.384616 -22.307693 -1.000000 0.000000 0.000000
-30.000000 -3.846157 -19.230770 -1.000000 0.000000 0.000000
-30.000000 -5.384616 -17.692307 -1.000000 0.000000 0.000000
-30.000002 -3.846156 -14.615385 -1.000000 0.000000 0.000000
-30.000000 -5.384616 -13.076922 -1.000000 0.000000 0.000000
-30.000000 -3.846157 -10.000000 -1.000000 0.000000 0.000000
-30.000000 -5.384617 -8.461538 -1.000000 0.000000 0.000000
-30.000000 -3.846156 -5.384616 -1.000000 0.000000 0.000000
-29.999996 -8.461539 -28.461536 -1.000000 0.000000 0.000000
-30.000000 -10.000000 -26.923077 -1.000000 0.000000 0.000000
-30.000000 -8.461537 -23.846153 -1.000000 0.000000 0.000000
-30.000000 -10.000001 -22.307693 -1.000000 0.000000 0.000000
-29.999998 -8.461538 -19.230768 -1.000000 0.000000 0.000000
-30.000000 -10.000000 -17.692307 -1.000000 0.000000 0.000000
-29.999998 -8.461538 -14.615381 -1.000000 0.000000 0.000000
-30.000000 -10.000000 -13.076921 -1.000000 0.000000 0.000000
-29.999998 -8.461538 -9.999998 -1.000000 0.000000 0.000000
-30.000000 -13.076924 -28.461540 -1.000000 0.000000 0.000000
-30.000000 -14.615384 -26.923077 -1.000000 0.000000 0.000000
-30.000000 -13.076923 -23.846153 -1.000000 0.000000 0.000000
-29.999998 -14.615385 -22.307692 -1.000000 0.000000 0.000000
-29.999998 -13.076924 -19.230768 -1.000000 0.000000 0.000000
-30.000000 -14.615384 -17.692307 -1.000000 0.000000 0.000000
-30.000000 -13.076923 -14.615383 -1.000000 0.000000 0.000000
-29.999998 -17.692308 -28.461538 -1.000000 0.000000 0.000000
-30.000000 -19.230770 -26.923077 -1.000000 0.000000 0.000000
-30.000000 -17.692307 -23.846153 -1.000000 0.000000 0.000000
-30.000000 -19.230770 -22.307693 -1.000000 0.000000 0.000000
-29.999998 -17.692308 -19.230768 -1.000000 0.000000 0.000000
-29.999998 -22.307695 -28.461538 -1.000000 0.000000 0.000000
-30.000000 -23.846157 -26.923077 -1.000000 0.000000 0.000000
-30.000000 -22.307693 -23.846153 -1.000000 0.000000 0.000000
-30.000000 -26.923080 -28.461540 -1.000000 0.000000 0.000000
28.461536 -26.923075 -29.999998 0.000000 0.000000 -1.000000
26.923077 -23.846153 -30.000000 0.000000 0.000000 -1.000000
28.461538 -22.307693 -30.000000 0.000000 0.000000 -1.000000
26.923077 -19.230768 -29.999998 0.000000 0.000000 -1.000000
28.461538 -17.692307 -30.000000 0.000000 0.000000 -1.000000
26.923077 -14.615383 -30.000000 0.000000 0.000000 -1.000000
28.461538 -13.076923 -30.000000 0.000000 0.000000 -1.000000
26.923077 -9.999999 -30.000000 0.000000 0.000000 -1.000000
28.461536 -8.461537 -30.000000 0.000000 0.000000 -1.000000
26.923077 -5.384614 -30.000000 0.000000 0.000000 -1.000000
28.461540 -3.846155 -30.000002 0.000000 0.000000 -1.000000
26.923077 -0.769230 -30.000000 0.000000 0.000000 -1.000000
28.461536 0.769233 -30.000000 0.000000 0.000000 -1.000000
26.923077 3.846153 -30.000000 0.000000 0.000000 -1.000000
28.461540 5.384617 -30.000000 0.000000 0.000000 -1.000000
26.923077 8.461540 -30.000000 0.000000 0.000000 -1.000000
28.461540 10.000001 -30.000000 0.000000 0.000000 -1.000000
26.923077 13.076923 -30.000000 0.000000 0.000000 -1.000000
28.461540 14.615384 -30.000000 0.000000 0.000000 -1.000000
26.923080 17.692310 -30.000004 0.000000 0.000000 -1.000000
28.461538 19.230768 -29.999998 0.000000 0.000000 -1.000000
26.923075 22.307692 -29.999998 0.000000 0.000000 -1.000000
28.461538 23.846155 -29.999998 0.000000 0.000000 -1.000000
26.923077 26.923080 -30.000000 0.000000 0.000000 -1.000000
28.461540 28.461540 -30.000000 0.000000 0.000000 -1.000000
23.846155 -22.307693 -30.000000 0.000000 0.000000 -1.000000
22.307690 -19.230768 -29.999998 0.000000 0.000000 -1.000000
23.846153 -17.692307 -30.000000 0.000000 0.000000 -1.000000
22.307692 -14.615383 -30.000000 0.000000 0.000000 -1.000000
23.846153 -13.076923 -30.000000 0.000000 0.000000 -1.000000
22.307693 -9.999999 -30.000000 0.000000 0.000000 -1.000000
23.846153 -8.461537 -30.000000 0.000000 0.000000 -1.000000
22.307692 -5.384613 -30.000000 0.000000 0.000000 -1.000000
23.846153 -3.846153 -30.000000 0.000000 0.000000 -1.000000
22.307692 -0.769230 -30.000000 0.000000 0.000000 -1.000000
23.846153 0.769231 -30.000000 0.000000 0.000000 -1.000000
22.307693 3.846153 -30.000000 0.000000 0.000000 -1.000000
23.846153 5.384617 -30.000000 0.000000 0.000000 -1.000000
22.307692 8.461540 -30.000000 0.000000 0.000000 -1.000000
23.846153 10.000003 -30.000000 0.000000 0.000000 -1.000000
22.307693 13.076923 -30.000000 0.000000 0.000000 -1.000000
23.846153 14.615386 -30.000000 0.000000 0.000000 -1.000000
22.307693 17.692307 -30.000000 0.000000 0.000000 -1.000000
23.846153 19.230770 -30.000000 0.000000 0.000000 -1.000000
22.307695 22.307695 -30.000002 0.000000 0.000000 -1.000000
23.846153 23.846153 -30.000000 0.000000 0.000000 -1.000000
22.307692 26.923075 -29.999998 0.000000 0.000000 -1.000000
23.846153 28.461540 -30.000000 0.000000 0.000000 -1.000000
19.230768 -17.692307 -30.000000 0.000000 0.000000 -1.000000
17.692307 -14.615383 -30.000000 0.000000 0.000000 -1.000000
19.230770 -13.076923 -30.000000 0.000000 0.000000 -1.000000
17.692308 -10.000000 -30.000000 0.000000 0.000000 -1.000000
19.230768 -8.461537 -30.000000 0.000000 0.000000 -1.000000
17.692307 -5.384613 -30.000000 0.000000 0.000000 -1.000000
19.230766 -3.846151 -29.999998 0.000000 0.000000 -1.000000
17.692308 -0.769230 -30.000000 0.000000 0.000000 -1.000000
19.230768 0.769232 -29.999998 0.000000 0.000000 -1.000000
17.692308 3.846153 -30.000000 0.000000 0.000000 -1.000000
19.230768 5.384617 -30.000000 0.000000 0.000000 -1.000000
17.692307 8.461540 -30.000000 0.000000 0.000000 -1.000000
19.230770 10.000001 -30.000000 0.000000 0.000000 -1.000000
17.692307 13.076924 -30.000000 0.000000 0.000000 -1.000000
19.230770 14.615387 -30.000000 0.000000 0.000000 -1.000000
17.692307 17.692310 -30.000000 0.000000 0.000000 -1.000000
19.230770 19.230770 -30.000000 0.000000 0.000000 -1.000000
17.692307 22.307693 -30.000000 0.000000 0.000000 -1.000000
19.230768 23.846155 -29.999998 0.000000 0.000000 -1.000000
17.692310 26.923080 -30.000004 0.000000 0.000000 -1.000000
19.230768 28.461538 -29.999998 0.000000 0.000000 -1.000000
14.615385 -13.076923 -30.000000 0.000000 0.000000 -1.000000
13.076922 -9.999999 -30.000000 0.000000 0.000000 -1.000000
14.615383 -8.461537 -30.000000 0.000000 0.000000 -1.000000
13.076921 -5.384613 -30.000000 0.000000 0.000000 -1.000000
14.615382 -3.846151 -29.999998 0.000000 0.000000 -1.000000
13.076923 -0.769228 -30.000002 0.000000 0.000000 -1.000000
14.615383 0.769233 -30.000000 0.000000 0.000000 -1.000000
13.076923 3.846155 -30.000002 0.000000 0.000000 -1.000000
14.615383 5.384617 -30.000000 0.000000 0.000000 -1.000000
13.076921 8.461540 -30.000000 0.000000 0.000000 -1.000000
14.615383 10.000001 -30.000000 0.000000 0.000000 -1.000000
13.076921 13.076926 -30.000000 0.000000 0.000000 -1.000000
14.615383 14.615387 -30.000000 0.000000 0.000000 -1.000000
13.076921 17.692310 -30.000000 0.000000 0.000000 -1.000000
14.615385 19.230772 -30.000002 0.000000 0.000000 -1.000000
13.076922 22.307693 -30.000000 0.000000 0.000000 -1.000000
14.615383 23.846157 -30.000000 0.000000 0.000000 -1.000000
13.076921 26.923080 -30.000000 0.000000 0.000000 -1.000000
14.615383 28.461540 -30.000000 0.000000 0.000000 -1.000000
9.999999 -8.461537 -30.000000 0.000000 0.000000 -1.000000
8.461537 -5.384614 -30.000000 0.000000 0.000000 -1.000000
10.000002 -3.846155 -30.000002 0.000000 0.000000 -1.000000
8.461538 -0.769230 -30.000000 0.000000 0.000000 -1.000000
9.999998 0.769232 -29.999998 0.000000 0.000000 -1.000000
8.461540 3.846155 -30.000002 0.000000 0.000000 -1.000000
10.000000 5.384617 -30.000000 0.000000 0.000000 -1.000000
8.461538 8.461540 -30.000000 0.000000 0.000000 -1.000000
9.999999 10.000001 -30.000000 0.000000 0.000000 -1.000000
8.461538 13.076923 -30.000000 0.000000 0.000000 -1.000000
9.999999 14.615387 -30.000000 0.000000 0.000000 -1.000000
8.461538 17.692308 -29.999998 0.000000 0.000000 -1.000000
10.000000 19.230770 -30.000000 0.000000 0.000000 -1.000000
8.461538 22.307693 -30.000000 0.000000 0.000000 -1.000000
10.000000 23.846157 -30.000000 0.000000 0.000000 -1.000000
8.461538 26.923080 -30.000000 0.000000 0.000000 -1.000000
10.000000 28.461540 -30.000000 0.000000 0.000000 -1.000000
5.384615 -3.846153 -30.000000 0.000000 0.000000 -1.000000
3.846152 -0.769229 -30.000000 0.000000 0.000000 -1.000000
5.384616 0.769231 -30.000000 0.000000 0.000000 -1.000000
3.846153 3.846155 -30.000002 0.000000 0.000000 -1.000000
5.384614 5.384617 -30.000000 0.000000 0.000000 -1.000000
3.846153 8.461542 -30.000002 0.000000 0.000000 -1.000000
5.384614 10.000001 -30.000000 0.000000 0.000000 -1.000000
3.846152 13.076926 -30.000000 0.000000 0.000000 -1.000000
5.384614 14.615387 -30.000000 0.000000 0.000000 -1.000000
3.846152 17.692310 -30.000000 0.000000 0.000000 -1.000000
5.384615 19.230770 -30.000000 0.000000 0.000000 -1.000000
3.846152 22.307693 -30.000000 0.000000 0.000000 -1.000000
5.384614 23.846155 -29.999998 0.000000 0.000000 -1.000000
3.846152 26.923080 -30.000000 0.000000 0.000000 -1.000000
5.384616 28.461540 -30.000000 0.000000 0.000000 -1.000000
0.769229 0.769233 -30.000000 0.000000 0.000000 -1.000000
-0.769231 3.846153 -30.000000 0.000000 0.000000 -1.000000
0.769230 5.384617 -30.000000 0.000000 0.000000 -1.000000
-0.769232 8.461540 -30.000000 0.000000 0.000000 -1.000000
0.769229 10.000001 -30.000000 0.000000 0.000000 -1.000000
-0.769231 13.076926 -30.000000 0.000000 0.000000 -1.000000
0.769229 14.615387 -30.000000 0.000000 0.000000 -1.000000
-0.769232 17.692310 -30.000000 0.000000 0.000000 -1.000000
0.769229 19.230770 -30.000000 0.000000 0.000000 -1.000000
-0.769232 22.307693 -30.000000 0.000000 0.000000 -1.000000
0.769229 23.846155 -29.999998 0.000000 0.000000 -1.000000
-0.769232 26.923080 -30.000000 0.000000 0.000000 -1.000000
0.769230 28.461540 -30.000000 0.000000 0.000000 -1.000000
-3.846157 5.384617 -30.000000 0.000000 0.000000 -1.000000
-5.384617 8.461540 -30.000000 0.000000 0.000000 -1.000000
-3.846156 10.000003 -30.000000 0.000000 0.000000 -1.000000
-5.384616 13.076923 -30.000000 0.000000 0.000000 -1.000000
-3.846157 14.615387 -30.000000 0.000000 0.000000 -1.000000
-5.384616 17.692310 -30.000000 0.000000 0.000000 -1.000000
-3.846156 19.230772 -30.000002 0.000000 0.000000 -1.000000
-5.384616 22.307693 -30.000000 0.000000 0.000000 -1.000000
-3.846157 23.846157 -30.000000 0.000000 0.000000 -1.000000
-5.384617 26.923080 -30.000000 0.000000 0.000000 -1.000000
-3.846156 28.461540 -30.000000 0.000000 0.000000 -1.000000
-8.461539 9.999999 -29.999996 0.000000 0.000000 -1.000000
-10.000000 13.076923 -30.000000 0.000000 0.000000 -1.000000
-8.461537 14.615384 -30.000000 0.000000 0.000000 -1.000000
-10.000001 17.692307 -30.000000 0.000000 0.000000 -1.000000
-8.461538 19.230768 -29.999998 0.000000 0.000000 -1.000000
-10.000000 22.307693 -30.000000 0.000000 0.000000 -1.000000
-8.461538 23.846155 -29.999998 0.000000 0.000000 -1.000000
-10.000000 26.923080 -30.000000 0.000000 0.000000 -1.000000
-8.461538 28.461538 -29.999998 0.000000 0.000000 -1.000000
-13.076924 14.615384 -30.000000 0.000000 0.000000 -1.000000
-14.615384 17.692307 -30.000000 0.000000 0.000000 -1.000000
-13.076923 19.230770 -30.000000 0.000000 0.000000 -1.000000
-14.615385 22.307692 -29.999998 0.000000 0.000000 -1.000000
-13.076924 23.846155 -29.999998 0.000000 0.000000 -1.000000
-14.615384 26.923077 -30.000000 0.000000 0.000000 -1.000000
-13.076923 28.461540 -30.000000 0.000000 0.000000 -1.000000
-17.692308 19.230768 -29.999998 0.000000 0.000000 -1.000000
-19.230770 22.307693 -30.000000 0.000000 0.000000 -1.000000
-17.692307 23.846153 -30.000000 0.000000 0.000000 -1.000000
-19.230770 26.923077 -30.000000 0.000000 0.000000 -1.000000
-17.692308 28.461538 -29.999998 0.000000 0.000000 -1.000000
-22.307695 23.846155 -29.999998 0.000000 0.000000 -1.000000
-23.846157 26.923080 -30.000000 0.000000 0.000000 -1.000000
-22.307693 28.461540 -30.000000 0.000000 0.000000 -1.000000
-26.923080 28.461540 -30.000000 0.000000 0.000000 -1.000000
-28.461536 -28.461536 -29.999998 0.000000 0.000000 -1.000000
-26.923077 -26.923077 -30.000000 0.000000 0.000000 -1.000000
-23.846155 -28.461538 -30.000000 0.000000 0.000000 -1.000000
-22.307690 -26.923077 -29.999998 0.000000 0.000000 -1.000000
-19.230768 -28.461538 -30.000000 0.000000 0.000000 -1.000000
-17.692307 -26.923077 -30.000000 0.000000 0.000000 -1.000000
-14.615385 -28.461538 -30.000000 0.000000 0.000000 -1.000000
-13.076922 -26.923077 -30.000000 0.000000 0.000000 -1.000000
-9.999999 -28.461536 -30.000000 0.000000 0.000000 -1.000000
-8.461537 -26.923077 -30.000000 0.000000 0.000000 -1.000000
-5.384617 -28.461540 -30.000002 0.000000 0.000000 -1.000000
-3.846153 -26.923077 -30.000000 0.000000 0.000000 -1.000000
-0.769229 -28.461536 -30.000000 0.000000 0.000000 -1.000000
0.769231 -26.923077 -30.000000 0.000000 0.000000 -1.000000
3.846157 -28.461540 -30.000000 0.000000 0.000000 -1.000000
5.384617 -26.923077 -30.000000 0.000000 0.000000 -1.000000
8.461541 -28.461540 -30.000000 0.000000 0.000000 -1.000000
10.000000 -26.923077 -30.000000 0.000000 0.000000 -1.000000
13.076924 -28.461540 -30.000000 0.000000 0.000000 -1.000000
14.615388 -26.923080 -30.000004 0.000000 0.000000 -1.000000
17.692308 -28.461538 -29.999998 0.000000 0.000000 -1.000000
19.230768 -26.923075 -29.999998 0.000000 0.000000 -1.000000
22.307695 -28.461538 -29.999998 0.000000 0.000000 -1.000000
23.846157 -26.923077 -30.000000 0.000000 0.000000 -1.000000
26.923080 -28.461540 -30.000000 0.000000 0.000000 -1.000000
-28.461538 -23.846155 -30.000000 0.000000 0.000000 -1.000000
-26.923077 -22.307690 -29.999998 0.000000 0.000000 -1.000000
-23.846153 -23.846153 -30.000000 0.000000 0.000000 -1.000000
-22.307692 -22.307692 -30.000000 0.000000 0.000000 -1.000000
-19.230770 -23.846153 -30.000000 0.000000 0.000000 -1.000000
-17.692307 -22.307693 -30.000000 0.000000 0.000000 -1.000000
-14.615383 -23.846153 -30.000000 0.000000 0.000000 -1.000000
-13.076921 -22.307692 -30.000000 0.000000 0.000000 -1.000000
-10.000000 -23.846153 -30.000000 0.000000 0.000000 -1.000000
-8.461538 -22.307692 -30.000000 0.000000 0.000000 -1.000000
-5.384616 -23.846153 -30.000000 0.000000 0.000000 -1.000000
-3.846154 -22.307693 -30.000000 0.000000 0.000000 -1.000000
-0.769230 -23.846153 -30.000000 0.000000 0.000000 -1.000000
0.769232 -22.307692 -30.000000 0.000000 0.000000 -1.000000
3.846156 -23.846153 -30.000000 0.000000 0.000000 -1.000000
5.384616 -22.307693 -30.000000 0.000000 0.000000 -1.000000
8.461539 -23.846153 -30.000000 0.000000 0.000000 -1.000000
10.000001 -22.307693 -30.000000 0.000000 0.000000 -1.000000
13.076923 -23.846153 -30.000000 0.000000 0.000000 -1.000000
14.615389 -22.307695 -30.000002 0.000000 0.000000 -1.000000
17.692307 -23.846153 -30.000000 0.000000 0.000000 -1.000000
19.230768 -22.307692 -29.999998 0.000000 0.000000 -1.000000
22.307693 -23.846153 -30.000000 0.000000 0.000000 -1.000000
-28.461538 -19.230768 -30.000000 0.000000 0.000000 -1.000000
-26.923077 -17.692307 -30.000000 0.000000 0.000000 -1.000000
-23.846153 -19.230770 -30.000000 0.000000 0.000000 -1.000000
-22.307692 -17.692308 -30.000000 0.000000 0.000000 -1.000000
-19.230768 -19.230768 -30.000000 0.000000 0.000000 -1.000000
-17.692307 -17.692307 -30.000000 0.000000 0.000000 -1.000000
-14.615382 -19.230766 -29.999998 0.000000 0.000000 -1.000000
-13.076921 -17.692308 -30.000000 0.000000 0.000000 -1.000000
-9.999998 -19.230768 -29.999998 0.000000 0.000000 -1.000000
-8.461538 -17.692308 -30.000000 0.000000 0.000000 -1.000000
-5.384614 -19.230768 -30.000000 0.000000 0.000000 -1.000000
-3.846153 -17.692307 -30.000000 0.000000 0.000000 -1.000000
-0.769229 -19.230770 -30.000000 0.000000 0.000000 -1.000000
0.769233 -17.692307 -30.000000 0.000000 0.000000 -1.000000
3.846157 -19.230770 -30.000000 0.000000 0.000000 -1.000000
5.384616 -17.692307 -30.000000 0.000000 0.000000 -1.000000
8.461540 -19.230770 -30.000000 0.000000 0.000000 -1.000000
10.000000 -17.692307 -30.000000 0.000000 0.000000 -1.000000
13.076924 -19.230768 -29.999998 0.000000 0.000000 -1.000000
14.615388 -17.692310 -30.000004 0.000000 0.000000 -1.000000
17.692308 -19.230768 -29.999998 0.000000 0.000000 -1.000000
-28.461538 -14.615385 -30.000000 0.000000 0.000000 -1.000000
-26.923077 -13.076922 -30.000000 0.000000 0.000000 -1.000000
-23.846153 -14.615383 -30.000000 0.000000 0.000000 -1.000000
-22.307692 -13.076921 -30.000000 0.000000 0.000000 -1.000000
-19.230766 -14.615382 -29.999998 0.000000 0.000000 -1.000000
-17.692307 -13.076923 -30.000002 0.000000 0.000000 -1.000000
-14.615383 -14.615383 -30.000000 0.000000 0.000000 -1.000000
-13.076923 -13.076923 -30.000002 0.000000 0.000000 -1.000000
-10.000000 -14.615383 -30.000000 0.000000 0.000000 -1.000000
-8.461538 -13.076921 -30.000000 0.000000 0.000000 -1.000000
-5.384614 -14.615383 -30.000000 0.000000 0.000000 -1.000000
-3.846153 -13.076921 -30.000000 0.000000 0.000000 -1.000000
-0.769229 -14.615383 -30.000000 0.000000 0.000000 -1.000000
0.769232 -13.076921 -30.000000 0.000000 0.000000 -1.000000
3.846156 -14.615385 -30.000002 0.000000 0.000000 -1.000000
5.384616 -13.076922 -30.000000 0.000000 0.000000 -1.000000
8.461540 -14.615383 -30.000000 0.000000 0.000000 -1.000000
10.000000 -13.076921 -30.000000 0.000000 0.000000 -1.000000
13.076923 -14.615383 -30.000000 0.000000 0.000000 -1.000000
-28.461536 -9.999999 -30.000000 0.000000 0.000000 -1.000000
-26.923077 -8.461537 -30.000000 0.000000 0.000000 -1.000000
-23.846155 -10.000002 -30.000002 0.000000 0.000000 -1.000000
-22.307692 -8.461538 -30.000000 0.000000 0.000000 -1.000000
-19.230768 -9.999998 -29.999998 0.000000 0.000000 -1.000000
-17.692307 -8.461540 -30.000002 0.000000 0.000000 -1.000000
-14.615383 -10.000000 -30.000000 0.000000 0.000000 -1.000000
-13.076921 -8.461538 -30.000000 0.000000 0.000000 -1.000000
-9.999999 -9.999999 -30.000000 0.000000 0.000000 -1.000000
-8.461538 -8.461538 -30.000000 0.000000 0.000000 -1.000000
-5.384614 -9.999999 -30.000000 0.000000 0.000000 -1.000000
-3.846153 -8.461538 -29.999998 0.000000 0.000000 -1.000000
-0.769229 -10.000000 -30.000000 0.000000 0.000000 -1.000000
0.769232 -8.461538 -30.000000 0.000000 0.000000 -1.000000
3.846157 -10.000000 -30.000000 0.000000 0.000000 -1.000000
5.384617 -8.461538 -30.000000 0.000000 0.000000 -1.000000
8.461540 -10.000000 -30.000000 0.000000 0.000000 -1.000000
-28.461538 -5.384615 -30.000000 0.000000 0.000000 -1.000000
-26.923077 -3.846152 -30.000000 0.000000 0.000000 -1.000000
-23.846153 -5.384616 -30.000000 0.000000 0.000000 -1.000000
-22.307693 -3.846153 -30.000002 0.000000 0.000000 -1.000000
-19.230768 -5.384614 -30.000000 0.000000 0.000000 -1.000000
-17.692307 -3.846153 -30.000002 0.000000 0.000000 -1.000000
-14.615383 -5.384614 -30.000000 0.000000 0.000000 -1.000000
-13.076922 -3.846152 -30.000000 0.000000 0.000000 -1.000000
-9.999999 -5.384614 -30.000000 0.000000 0.000000 -1.000000
-8.461538 -3.846152 -30.000000 0.000000 0.000000 -1.000000
-5.384615 -5.384615 -30.000000 0.000000 0.000000 -1.000000
-3.846154 -3.846152 -30.000000 0.000000 0.000000 -1.000000
-0.769229 -5.384614 -29.999998 0.000000 0.000000 -1.000000
0.769231 -3.846152 -30.000000 0.000000 0.000000 -1.000000
3.846156 -5.384616 -30.000000 0.000000 0.000000 -1.000000
-28.461536 -0.769229 -30.000000 0.000000 0.000000 -1.000000
-26.923077 0.769231 -30.000000 0.000000 0.000000 -1.000000
-23.846153 -0.769230 -30.000000 0.000000 0.000000 -1.000000
-22.307692 0.769232 -30.000000 0.000000 0.000000 -1.000000
-19.230770 -0.769229 -30.000000 0.000000 0.000000 -1.000000
-17.692307 0.769231 -30.000000 0.000000 0.000000 -1.000000
-14.615383 -0.769229 -30.000000 0.000000 0.000000 -1.000000
-13.076921 0.769232 -30.000000 0.000000 0.000000 -1.000000
-10.000000 -0.769229 -30.000000 0.000000 0.000000 -1.000000
-8.461538 0.769232 -30.000000 0.000000 0.000000 -1.000000
-5.384614 -0.769229 -29.999998 0.000000 0.000000 -1.000000
-3.846153 0.769232 -30.000000 0.000000 0.000000 -1.000000
-0.769230 -0.769230 -30.000000 0.000000 0.000000 -1.000000
-28.461540 3.846157 -30.000000 0.000000 0.000000 -1.000000
-26.923077 5.384617 -30.000000 0.000000 0.000000 -1.000000
-23.846153 3.846156 -30.000000 0.000000 0.000000 -1.000000
-22.307693 5.384616 -30.000000 0.000000 0.000000 -1.000000
-19.230770 3.846157 -30.000000 0.000000 0.000000 -1.000000
-17.692307 5.384616 -30.000000 0.000000 0.000000 -1.000000
-14.615385 3.846156 -30.000002 0.000000 0.000000 -1.000000
-13.076922 5.384616 -30.000000 0.000000 0.000000 -1.000000
-10.000000 3.846157 -30.000000 0.000000 0.000000 -1.000000
-8.461538 5.384617 -30.000000 0.000000 0.000000 -1.000000
-5.384616 3.846156 -30.000000 0.000000 0.000000 -1.000000
-28.461536 8.461539 -29.999996 0.000000 0.000000 -1.000000
-26.923077 10.000000 -30.000000 0.000000 0.000000 -1.000000
-23.846153 8.461537 -30.000000 0.000000 0.000000 -1.000000
-22.307693 10.000001 -30.000000 0.000000 0.000000 -1.000000
-19.230768 8.461538 -29.999998 0.000000 0.000000 -1.000000
-17.692307 10.000000 -30.000000 0.000000 0.000000 -1.000000
-14.615381 8.461538 -29.999998 0.000000 0.000000 -1.000000
-13.076921 10.000000 -30.000000 0.000000 0.000000 -1.000000
-9.999998 8.461538 -29.999998 0.000000 0.000000 -1.000000
-28.461540 13.076924 -30.000000 0.000000 0.000000 -1.000000
-26.923077 14.615384 -30.000000 0.000000 0.000000 -1.000000
-23.846153 13.076923 -30.000000 0.000000 0.000000 -1.000000
-22.307692 14.615385 -29.999998 0.000000 0.000000 -1.000000
-19.230768 13.076924 -29.999998 0.000000 0.000000 -1.000000
-17.692307 14.615384 -30.000000 0.000000 0.000000 -1.000000
-14.615383 13.076923 -30.000000 0.000000 0.000000 -1.000000
-28.461538 17.692308 -29.999998 0.000000 0.000000 -1.000000
-26.923077 19.230770 -30.000000 0.000000 0.000000 -1.000000
-23.846153 17.692307 -30.000000 0.000000 0.000000 -1.000000
-22.307693 19.230770 -30.000000 0.000000 0.000000 -1.000000
-19.230768 17.692308 -29.999998 0.000000 0.000000 -1.000000
-28.461538 22.307695 -29.999998 0.000000 0.000000 -1.000000
-26.923077 23.846157 -30.000000 0.000000 0.000000 -1.000000
-23.846153 22.307693 -30.000000 0.000000 0.000000 -1.000000
-28.461540 26.923080 -30.000000 0.000000 0.000000 -1.000000
29.999998 -26.923075 28.461536 1.000000 0.000000 0.000000
30.000000 -23.846153 26.923077 1.000000 0.000000 0.000000
30.000000 -22.307693 28.461538 1.000000 0.000000 0.000000
29.999998 -19.230768 26.923077 1.000000 0.000000 0.000000
30.000000 -17.692307 28.461538 1.000000 0.000000 0.000000
30.000000 -14.615383 26.923077 1.000000 0.000000 0.000000
30.000000 -13.076923 28.461538 1.000000 0.000000 0.000000
30.000000 -9.999999 26.923077 1.000000 0.000000 0.000000
30.000000 -8.461537 28.461536 1.000000 0.000000 0.000000
30.000000 -5.384614 26.923077 1.000000 0.000000 0.000000
30.000002 -3.846155 28.461540 1.000000 0.000000 0.000000
30.000000 -0.769230 26.923077 1.000000 0.000000 0.000000
30.000000 0.769233 28.461536 1.000000 0.000000 0.000000
30.000000 3.846153 26.923077 1.000000 0.000000 0.000000
30.000000 5.384617 28.461540 1.000000 0.000000 0.000000
30.000000 8.461540 26.923077 1.000000 0.000000 0.000000
30.000000 10.000001 28.461540 1.000000 0.000000 0.000000
30.000000 13.076923 26.923077 1.000000 0.000000 0.000000
30.000000 14.615384 28.461540 1.000000 0.000000 0.000000
30.000004 17.692310 26.923080 1.000000 0.000000 0.000000
29.999998 19.230768 28.461538 1.000000 0.000000 0.000000
29.999998 22.307692 26.923075 1.000000 0.000000 0.000000
29.999998 23.846155 28.461538 1.000000 0.000000 0.000000
30.000000 26.923080 26.923077 1.000000 0.000000 0.000000
30.000000 28.461540 28.461540 1.000000 0.000000 0.000000
30.000000 -22.307693 23.846155 1.000000 0.000000 0.000000
29.999998 -19.230768 22.307690 1.000000 0.000000 0.000000
30.000000 -17.692307 23.846153 1.000000 0.000000 0.000000
30.000000 -14.615383 22.307692 1.000000 0.000000 0.000000
30.000000 -13.076923 23.846153 1.000000 0.000000 0.000000
30.000000 -9.999999 22.307693 1.000000 0.000000 0.000000
30.000000 -8.461537 23.846153 1.000000 0.000000 0.000000
30.000000 -5.384613 22.307692 1.000000 0.000000 0.000000
30.000000 -3.846153 23.846153 1.000000 0.000000 0.000000
30.000000 -0.769230 22.307692 1.000000 0.000000 0.000000
30.000000 0.769231 23.846153 1.000000 0.000000 0.000000
30.000000 3.846153 22.307693 1.000000 0.000000 0.000000
30.000000 5.384617 23.846153 1.000000 0.000000 0.000000
30.000000 8.461540 22.307692 1.000000 0.000000 0.000000
30.000000 10.000003 23.846153 1.000000 0.000000 0.000000
30.000000 13.076923 22.307693 1.000000 0.000000 0.000000
30.000000 14.615386 23.846153 1.000000 0.000000 0.000000
30.000000 17.692307 22.307693 1.000000 0.000000 0.000000
30.000000 19.230770 23.846153 1.000000 0.000000 0.000000
30.000002 22.307695 22.307695 1.000000 0.000000 0.000000
30.000000 23.846153 23.846153 1.000000 0.000000 0.000000
29.999998 26.923075 22.307692 1.000000 0.000000 0.000000
30.000000 28.461540 23.846153 1.000000 0.000000 0.000000
30.000000 -17.692307 19.230768 1.000000 0.000000 0.000000
30.000000 -14.615383 17.692307 1.000000 0.000000 0.000000
30.000000 -13.076923 19.230770 1.000000 0.000000 0.000000
30.000000 -10.000000 17.692308 1.000000 0.000000 0.000000
30.000000 -8.461537 19.230768 1.000000 0.000000 0.000000
30.000000 -5.384613 17.692307 1.000000 0.000000 0.000000
29.999998 -3.846151 19.230766 1.000000 0.000000 0.000000
30.000000 -0.769230 17.692308 1.000000 0.000000 0.000000
29.999998 0.769232 19.230768 1.000000 0.000000 0.000000
30.000000 3.846153 17.692308 1.000000 0.000000 0.000000
30.000000 5.384617 19.230768 1.000000 0.000000 0.000000
30.000000 8.461540 17.692307 1.000000 0.000000 0.000000
30.000000 10.000001 19.230770 1.000000 0.000000 0.000000
30.000000 13.076924 17.692307 1.000000 0.000000 0.000000
30.000000 14.615387 19.230770 1.000000 0.000000 0.000000
30.000000 17.692310 17.692307 1.000000 0.000000 0.000000
30.000000 19.230770 19.230770 1.000000 0.000000 0.000000
30.000000 22.307693 17.692307 1.000000 0.000000 0.000000
29.999998 23.846155 19.230768 1.000000 0.000000 0.000000
30.000004 26.923080 17.692310 1.000000 0.000000 0.000000
29.999998 28.461538 19.230768 1.000000 0.000000 0.000000
30.000000 -13.076923 14.615385 1.000000 0.000000 0.000000
30.000000 -9.999999 13.076922 1.000000 0.000000 0.000000
30.000000 -8.461537 14.615383 1.000000 0.000000 0.000000
30.000000 -5.384613 13.076921 1.000000 0.000000 0.000000
29.999998 -3.846151 14.615382 1.000000 0.000000 0.000000
30.000002 -0.769228 13.076923 1.000000 0.000000 0.000000
30.000000 0.769233 14.615383 1.000000 0.000000 0.000000
30.000002 3.846155 13.076923 1.000000 0.000000 0.000000
30.000000 5.384617 14.615383 1.000000 0.000000 0.000000
30.000000 8.461540 13.076921 1.000000 0.000000 0.000000
30.000000 10.000001 14.615383 1.000000 0.000000 0.000000
30.000000 13.076926 13.076921 1.000000 0.000000 0.000000
30.000000 14.615387 14.615383 1.000000 0.000000 0.000000
30.000000 17.692310 13.076921 1.000000 0.000000 0.000000
30.000002 19.230772 14.615385 1.000000 0.000000 0.000000
30.000000 22.307693 13.076922 1.000000 0.000000 0.000000
30.000000 23.846157 14.615383 1.000000 0.000000 0.000000
30.000000 26.923080 13.076921 1.000000 0.000000 0.000000
30.000000 28.461540 14.615383 1.000000 0.000000 0.000000
30.000000 -8.461537 9.999999 1.000000 0.000000 0.000000
30.000000 -5.384614 8.461537 1.000000 0.000000 0.000000
30.000002 -3.846155 10.000002 1.000000 0.000000 0.000000
30.000000 -0.769230 8.461538 1.000000 0.000000 0.000000
29.999998 0.769232 9.999998 1.000000 0.000000 0.000000
30.000002 3.846155 8.461540 1.000000 0.000000 0.000000
30.000000 5.384617 10.000000 1.000000 0.000000 0.000000
30.000000 8.461540 8.461538 1.000000 0.000000 0.000000
30.000000 10.000001 9.999999 1.000000 0.000000 0.000000
30.000000 13.076923 8.461538 1.000000 0.000000 0.000000
30.000000 14.615387 9.999999 1.000000 0.000000 0.000000
29.999998 17.692308 8.461538 1.000000 0.000000 0.000000
30.000000 19.230770 10.000000 1.000000 0.000000 0.000000
30.000000 22.307693 8.461538 1.000000 0.000000 0.000000
30.000000 23.846157 10.000000 1.000000 0.000000 0.000000
30.000000 26.923080 8.461538 1.000000 0.000000 0.000000
30.000000 28.461540 10.000000 1.000000 0.000000 0.000000
30.000000 -3.846153 5.384615 1.000000 0.000000 0.000000
30.000000 -0.769229 3.846152 1.000000 0.000000 0.000000
30.000000 0.769231 5.384616 1.000000 0.000000 0.000000
30.000002 3.846155 3.846153 1.000000 0.000000 0.000000
30.000000 5.384617 5.384614 1.000000 0.000000 0.000000
30.000002 8.461542 3.846153 1.000000 0.000000 0.000000
30.000000 10.000001 5.384614 1.000000 0.000000 0.000000
30.000000 13.076926 3.846152 1.000000 0.000000 0.000000
30.000000 14.615387 5.384614 1.000000 0.000000 0.000000
30.000000 17.692310 3.846152 1.000000 0.000000 0.000000
30.000000 19.230770 5.384615 1.000000 0.000000 0.000000
30.000000 22.307693 3.846152 1.000000 0.000000 0.000000
29.999998 23.846155 5.384614 1.000000 0.000000 0.000000
30.000000 26.923080 3.846152 1.000000 0.000000 0.000000
30.000000 28.461540 5.384616 1.000000 0.000000 0.000000
30.000000 0.769233 0.769229 1.000000 0.000000 0.000000
30.000000 3.846153 -0.769231 1.000000 0.000000 0.000000
30.000000 5.384617 0.769230 1.000000 0.000000 0.000000
30.000000 8.461540 -0.769232 1.000000 0.000000 0.000000
30.000000 10.000001 0.769229 1.000000 0.000000 0.000000
30.000000 13.076926 -0.769231 1.000000 0.000000 0.000000
30.000000 14.615387 0.769229 1.000000 0.000000 0.000000
30.000000 17.692310 -0.769232 1.000000 0.000000 0.000000
30.000000 19.230770 0.769229 1.000000 0.000000 0.000000
30.000000 22.307693 -0.769232 1.000000 0.000000 0.000000
29.999998 23.846155 0.769229 1.000000 0.000000 0.000000
30.000000 26.923080 -0.769232 1.000000 0.000000 0.000000
30.000000 28.461540 0.769230 1.000000 0.000000 0.000000
30.000000 5.384617 -3.846157 1.000000 0.000000 0.000000
30.000000 8.461540 -5.384617 1.000000 0.000000 0.000000
30.000000 10.000003 -3.846156 1.000000 0.000000 0.000000
30.000000 13.076923 -5.384616 1.000000 0.000000 0.000000
30.000000 14.615387 -3.846157 1.000000 0.000000 0.000000
30.000000 17.692310 -5.384616 1.000000 0.000000 0.000000
30.000002 19.230772 -3.846156 1.000000 0.000000 0.000000
30.000000 22.307693 -5.384616 1.000000 0.000000 0.000000
30.000000 23.846157 -3.846157 1.000000 0.000000 0.000000
30.000000 26.923080 -5.384617 1.000000 0.000000 0.000000
30.000000 28.461540 -3.846156 1.000000 0.000000 0.000000
29.999996 9.999999 -8.461539 1.000000 0.000000 0.000000
30.000000 13.076923 -10.000000 1.000000 0.000000 0.000000
30.000000 14.615384 -8.461537 1.000000 0.000000 0.000000
30.000000 17.692307 -10.000001 1.000000 0.000000 0.000000
29.999998 19.230768 -8.461538 1.000000 0.000000 0.000000
30.000000 22.307693 -10.000000 1.000000 0.000000 0.000000
29.999998 23.846155 -8.461538 1.000000 0.000000 0.000000
30.000000 26.923080 -10.000000 1.000000 0.000000 0.000000
29.999998 28.461538 -8.461538 1.000000 0.000000 0.000000
30.000000 14.615384 -13.076924 1.000000 0.000000 0.000000
30.000000 17.692307 -14.615384 1.000000 0.000000 0.000000
30.000000 19.230770 -13.076923 1.000000 0.000000 0.000000
29.999998 22.307692 -14.615385 1.000000 0.000000 0.000000
29.999998 23.846155 -13.076924 1.000000 0.000000 0.000000
30.000000 26.923077 -14.615384 1.000000 0.000000 0.000000
30.000000 28.461540 -13.076923 1.000000 0.000000 0.000000
29.999998 19.230768 -17.692308 1.000000 0.000000 0.000000
30.000000 22.307693 -19.230770 1.000000 0.000000 0.000000
30.000000 23.846153 -17.692307 1.000000 0.000000 0.000000
30.000000 26.923077 -19.230770 1.000000 0.000000 0.000000
29.999998 28.461538 -17.692308 1.000000 0.000000 0.000000
29.999998 23.846155 -22.307695 1.000000 0.000000 0.000000
30.000000 26.923080 -23.846157 1.000000 0.000000 0.000000
30.000000 28.461540 -22.307693 1.000000 0.000000 0.000000
30.000000 28.461540 -26.923080 1.000000 0.000000 0.000000
29.999998 -28.461536 -28.461536 1.000000 0.000000 0.000000
30.000000 -26.923077 -26.923077 1.000000 0.000000 0.000000
30.000000 -28.461538 -23.846155 1.000000 0.000000 0.000000
29.999998 -26.923077 -22.307690 1.000000 0.000000 0.000000
30.000000 -28.461538 -19.230768 1.000000 0.000000 0.000000
30.000000 -26.923077 -17.692307 1.000000 0.000000 0.000000
30.000000 -28.461538 -14.615385 1.000000 0.000000 0.000000
30.000000 -26.923077 -13.076922 1.000000 0.000000 0.000000
30.000000 -28.461536 -9.999999 1.000000 0.000000 0.000000
30.000000 -26.923077 -8.461537 1.000000 0.000000 0.000000
30.000002 -28.461540 -5.384617 1.000000 0.000000 0.000000
30.000000 -26.923077 -3.846153 1.000000 0.000000 0.000000
30.000000 -28.461536 -0.769229 1.000000 0.000000 0.000000
30.000000 -26.923077 0.769231 1.000000 0.000000 0.000000
30.000000 -28.461540 3.846157 1.000000 0.000000 0.000000
30.000000 -26.923077 5.384617 1.000000 0.000000 0.000000
30.000000 -28.461540 8.461541 1.000000 0.000000 0.000000
30.000000 -26.923077 10.000000 1.000000 0.000000 0.000000
30.000000 -28.461540 13.076924 1.000000 0.000000 0.000000
30.000004 -26.923080 14.615388 1.000000 0.000000 0.000000
29.999998 -28.461538 17.692308 1.000000 0.000000 0.000000
29.999998 -26.923075 19.230768 1.000000 0.000000 0.000000
29.999998 -28.461538 22.307695 1.000000 0.000000 0.000000
30.000000 -26.923077 23.846157 1.000000 0.000000 0.000000
30.000000 -28.461540 26.923080 1.000000 0.000000 0.000000
30.000000 -23.846155 -28.461538 1.000000 0.000000 0.000000
29.999998 -22.307690 -26.923077 1.000000 0.000000 0.000000
30.000000 -23.846153 -23.846153 1.000000 0.000000 0.000000
30.000000 -22.307692 -22.307692 1.000000 0.000000 0.000000
30.000000 -23.846153 -19.230770 1.000000 0.000000 0.000000
30.000000 -22.307693 -17.692307 1.000000 0.000000 0.000000
30.000000 -23.846153 -14.615383 1.000000 0.000000 0.000000
30.000000 -22.307692 -13.076921 1.000000 0.000000 0.000000
30.000000 -23.846153 -10.000000 1.000000 0.000000 0.000000
30.000000 -22.307692 -8.461538 1.000000 0.000000 0.000000
30.000000 -23.846153 -5.384616 1.000000 0.000000 0.000000
30.000000 -22.307693 -3.846154 1.000000 0.000000 0.000000
30.000000 -23.846153 -0.769230 1.000000 0.000000 0.000000
30.000000 -22.307692 0.769232 1.000000 0.000000 0.000000
30.000000 -23.846153 3.846156 1.000000 0.000000 0.000000
30.000000 -22.307693 5.384616 1.000000 0.000000 0.000000
30.000000 -23.846153 8.461539 1.000000 0.000000 0.000000
30.000000 -22.307693 10.000001 1.000000 0.000000 0.000000
30.000000 -23.846153 13.076923 1.000000 0.000000 0.000000
30.000002 -22.307695 14.615389 1.000000 0.000000 0.000000
30.000000 -23.846153 17.692307 1.000000 0.000000 0.000000
29.999998 -22.307692 19.230768 1.000000 0.000000 0.000000
30.000000 -23.846153 22.307693 1.000000 0.000000 0.000000
30.000000 -19.230768 -28.461538 1.000000 0.000000 0.000000
30.000000 -17.692307 -26.923077 1.000000 0.000000 0.000000
30.000000 -19.230770 -23.846153 1.000000 0.000000 0.000000
30.000000 -17.692308 -22.307692 1.000000 0.000000 0.000000
30.000000 -19.230768 -19.230768 1.000000 0.000000 0.000000
30.000000 -17.692307 -17.692307 1.000000 0.000000 0.000000
29.999998 -19.230766 -14.615382 1.000000 0.000000 0.000000
30.000000 -17.692308 -13.076921 1.000000 0.000000 0.000000
29.999998 -19.230768 -9.999998 1.000000 0.000000 0.000000
30.000000 -17.692308 -8.461538 1.000000 0.000000 0.000000
30.000000 -19.230768 -5.384614 1.000000 0.000000 0.000000
30.000000 -17.692307 -3.846153 1.000000 0.000000 0.000000
30.000000 -19.230770 -0.769229 1.000000 0.000000 0.000000
30.000000 -17.692307 0.769233 1.000000 0.000000 0.000000
30.000000 -19.230770 3.846157 1.000000 0.000000 0.000000
30.000000 -17.692307 5.384616 1.000000 0.000000 0.000000
30.000000 -19.230770 8.461540 1.000000 0.000000 0.000000
30.000000 -17.692307 10.000000 1.000000 0.000000 0.000000
29.999998 -19.230768 13.076924 1.000000 0.000000 0.000000
30.000004 -17.692310 14.615388 1.000000 0.000000 0.000000
29.999998 -19.230768 17.692308 1.000000 0.000000 0.000000
30.000000 -14.615385 -28.461538 1.000000 0.000000 0.000000
30.000000 -13.076922 -26.923077 1.000000 0.000000 0.000000
30.000000 -14.615383 -23.846153 1.000000 0.000000 0.000000
30.000000 -13.076921 -22.307692 1.000000 0.000000 0.000000
29.999998 -14.615382 -19.230766 1.000000 0.000000 0.000000
30.000002 -13.076923 -17.692307 1.000000 0.000000 0.000000
30.000000 -14.615383 -14.615383 1.000000 0.000000 0.000000
30.000002 -13.076923 -13.076923 1.000000 0.000000 0.000000
30.000000 -14.615383 -10.000000 1.000000 0.000000 0.000000
30.000000 -13.076921 -8.461538 1.000000 0.000000 0.000000
30.000000 -14.615383 -5.384614 1.000000 0.000000 0.000000
30.000000 -13.076921 -3.846153 1.000000 0.000000 0.000000
30.000000 -14.615383 -0.769229 1.000000 0.000000 0.000000
30.000000 -13.076921 0.769232 1.000000 0.000000 0.000000
30.000002 -14.615385 3.846156 1.000000 0.000000 0.000000
30.000000 -13.076922 5.384616 1.000000 0.000000 0.000000
30.000000 -14.615383 8.461540 1.000000 0.000000 0.000000
30.000000 -13.076921 10.000000 1.000000 0.000000 0.000000
30.000000 -14.615383 13.076923 1.000000 0.000000 0.000000
30.000000 -9.999999 -28.461536 1.000000 0.000000 0.000000
30.000000 -8.461537 -26.923077 1.000000 0.000000 0.000000
30.000002 -10.000002 -23.846155 1.000000 0.000000 0.000000
30.000000 -8.461538 -22.307692 1.000000 0.000000 0.000000
29.999998 -9.999998 -19.230768 1.000000 0.000000 0.000000
30.000002 -8.461540 -17.692307 1.000000 0.000000 0.000000
30.000000 -10.000000 -14.615383 1.000000 0.000000 0.000000
30.000000 -8.461538 -13.076921 1.000000 0.000000 0.000000
30.000000 -9.999999 -9.999999 1.000000 0.000000 0.000000
30.000000 -8.461538 -8.461538 1.000000 0.000000 0.000000
30.000000 -9.999999 -5.384614 1.000000 0.000000 0.000000
29.999998 -8.461538 -3.846153 1.000000 0.000000 0.000000
30.000000 -10.000000 -0.769229 1.000000 0.000000 0.000000
30.000000 -8.461538 0.769232 1.000000 0.000000 0.000000
30.000000 -10.000000 3.846157 1.000000 0.000000 0.000000
30.000000 -8.461538 5.384617 1.000000 0.000000 0.000000
30.000000 -10.000000 8.461540 1.000000 0.000000 0.000000
30.000000 -5.384615 -28.461538 1.000000 0.000000 0.000000
30.000000 -3.846152 -26.923077 1.000000 0.000000 0.000000
30.000000 -5.384616 -23.846153 1.000000 0.000000 0.000000
30.000002 -3.846153 -22.307693 1.000000 0.000000 0.000000
30.000000 -5.384614 -19.230768 1.000000 0.000000 0.000000
30.000002 -3.846153 -17.692307 1.000000 0.000000 0.000000
30.000000 -5.384614 -14.615383 1.000000 0.000000 0.000000
30.000000 -3.846152 -13.076922 1.000000 0.000000 0.000000
30.000000 -5.384614 -9.999999 1.000000 0.000000 0.000000
30.000000 -3.846152 -8.461538 1.000000 0.000000 0.000000
30.000000 -5.384615 -5.384615 1.000000 0.000000 0.000000
30.000000 -3.846152 -3.846154 1.000000 0.000000 0.000000
29.999998 -5.384614 -0.769229 1.000000 0.000000 0.000000
30.000000 -3.846152 0.769231 1.000000 0.000000 0.000000
30.000000 -5.384616 3.846156 1.000000 0.000000 0.000000
30.000000 -0.769229 -28.461536 1.000000 0.000000 0.000000
30.000000 0.769231 -26.923077 1.000000 0.000000 0.000000
30.000000 -0.769230 -23.846153 1.000000 0.000000 0.000000
30.000000 0.769232 -22.307692 1.000000 0.000000 0.000000
30.000000 -0.769229 -19.230770 1.000000 0.000000 0.000000
30.000000 0.769231 -17.692307 1.000000 0.000000 0.000000
30.000000 -0.769229 -14.615383 1.000000 0.000000 0.000000
30.000000 0.769232 -13.076921 1.000000 0.000000 0.000000
30.000000 -0.769229 -10.000000 1.000000 0.000000 0.000000
30.000000 0.769232 -8.461538 1.000000 0.000000 0.000000
29.999998 -0.769229 -5.384614 1.000000 0.000000 0.000000
30.000000 0.769232 -3.846153 1.000000 0.000000 0.000000
30.000000 -0.769230 -0.769230 1.000000 0.000000 0.000000
30.000000 3.846157 -28.461540 1.000000 0.000000 0.000000
30.000000 5.384617 -26.923077 1.000000 0.000000 0.000000
30.000000 3.846156 -23.846153 1.000000 0.000000 0.000000
30.000000 5.384616 -22.307693 1.000000 0.000000 0.000000
30.000000 3.846157 -19.230770 1.000000 0.000000 0.000000
30.000000 5.384616 -17.692307 1.000000 0.000000 0.000000
30.000002 3.846156 -14.615385 1.000000 0.000000 0.000000
30.000000 5.384616 -13.076922 1.000000 0.000000 0.000000
30.000000 3.846157 -10.000000 1.000000 0.000000 0.000000
30.000000 5.384617 -8.461538 1.000000 0.000000 0.000000
30.000000 3.846156 -5.384616 1.000000 0.000000 0.000000
29.999996 8.461539 -28.461536 1.000000 0.000000 0.000000
30.000000 10.000000 -26.923077 1.000000 0.000000 0.000000
30.000000 8.461537 -23.846153 1.000000 0.000000 0.000000
30.000000 10.000001 -22.307693 1.000000 0.000000 0.000000
29.999998 8.461538 -19.230768 1.000000 0.000000 0.000000
30.000000 10.000000 -17.692307 1.000000 0.000000 0.000000
29.999998 8.461538 -14.615381 1.000000 0.000000 0.000000
30.000000 10.000000 -13.076921 1.000000 0.000000 0.000000
29.999998 8.461538 -9.999998 1.000000 0.000000 0.000000
30.000000 13.076924 -28.461540 1.000000 0.000000 0.000000
30.000000 14.615384 -26.923077 1.000000 0.000000 0.000000
30.000000 13.076923 -23.846153 1.000000 0.000000 0.000000
29.999998 14.615385 -22.307692 1.000000 0.000000 0.000000
29.999998 13.076924 -19.230768 1.000000 0.000000 0.000000
30.000000 14.615384 -17.692307 1.000000 0.000000 0.000000
30.000000 13.076923 -14.615383 1.000000 0.000000 0.000000
29.999998 17.692308 -28.461538 1.000000 0.000000 0.000000
30.000000 19.230770 -26.923077 1.000000 0.000000 0.000000
30.000000 17.692307 -23.846153 1.000000 0.000000 0.000000
30.000000 19.230770 -22.307693 1.000000 0.000000 0.000000
29.999998 17.692308 -19.230768 1.000000 0.000000 0.000000
29.999998 22.307695 -28.461538 1.000000 0.000000 0.000000
30.000000 23.846157 -26.923077 1.000000 0.000000 0.000000
30.000000 22.307693 -23.846153 1.000000 0.000000 0.000000
30.000000 26.923080 -28.461540 1.000000 0.000000 0.000000
26.666668 30.000000 28.333334 0.000000 1.000000 0.000000
23.333332 30.000000 26.666666 0.000000 1.000000 0.000000
21.666668 30.000000 28.333334 0.000000 1.000000 0.000000
18.333332 30.000000 26.666666 0.000000 1.000000 0.000000
16.666664 30.000000 28.333332 0.000000 1.000000 0.000000
13.333331 29.999996 26.666664 0.000000 1.000000 0.000000
11.666665 30.000000 28.333332 0.000000 1.000000 0.000000
8.333331 30.000000 26.666668 0.000000 1.000000 0.000000
6.666667 30.000000 28.333336 0.000000 1.000000 0.000000
3.333331 30.000000 26.666668 0.000000 1.000000 0.000000
1.666666 29.999998 28.333332 0.000000 1.000000 0.000000
-1.666667 30.000000 26.666668 0.000000 1.000000 0.000000
-3.333336 30.000000 28.333332 0.000000 1.000000 0.000000
-6.666668 30.000000 26.666668 0.000000 1.000000 0.000000
-8.333338 30.000002 28.333334 0.000000 1.000000 0.000000
-11.666665 30.000000 26.666668 0.000000 1.000000 0.000000
-13.333335 30.000000 28.333332 0.000000 1.000000 0.000000
-16.666668 30.000000 26.666668 0.000000 1.000000 0.000000
-18.333336 30.000004 28.333336 0.000000 1.000000 0.000000
-21.666668 30.000000 26.666668 0.000000 1.000000 0.000000
-23.333338 30.000002 28.333334 0.000000 1.000000 0.000000
-26.666666 29.999998 26.666666 0.000000 1.000000 0.000000
-28.333334 30.000002 28.333334 0.000000 1.000000 0.000000
21.666668 30.000000 23.333334 0.000000 1.000000 0.000000
18.333332 30.000000 21.666666 0.000000 1.000000 0.000000
16.666666 29.999998 23.333332 0.000000 1.000000 0.000000
13.333330 29.999998 21.666664 0.000000 1.000000 0.000000
11.666665 30.000000 23.333332 0.000000 1.000000 0.000000
8.333332 30.000000 21.666666 0.000000 1.000000 0.000000
6.666667 30.000000 23.333336 0.000000 1.000000 0.000000
3.333331 30.000000 21.666668 0.000000 1.000000 0.000000
1.666665 30.000000 23.333332 0.000000 1.000000 0.000000
-1.666669 30.000000 21.666668 0.000000 1.000000 0.000000
-3.333334 29.999998 23.333332 0.000000 1.000000 0.000000
-6.666668 30.000000 21.666666 0.000000 1.000000 0.000000
-8.333336 30.000000 23.333332 0.000000 1.000000 0.000000
-11.666670 30.000002 21.666668 0.000000 1.000000 0.000000
-13.333337 30.000004 23.333336 0.000000 1.000000 0.000000
-16.666666 29.999998 21.666664 0.000000 1.000000 0.000000
-18.333336 30.000000 23.333332 0.000000 1.000000 0.000000
-21.666670 30.000002 21.666666 0.000000 1.000000 0.000000
-23.333336 30.000004 23.333336 0.000000 1.000000 0.000000
-26.666670 30.000002 21.666666 0.000000 1.000000 0.000000
-28.333336 30.000004 23.333336 0.000000 1.000000 0.000000
16.666664 30.000000 18.333332 0.000000 1.000000 0.000000
13.333331 29.999996 16.666664 0.000000 1.000000 0.000000
11.666665 30.000000 18.333332 0.000000 1.000000 0.000000
8.333332 30.000000 16.666666 0.000000 1.000000 0.000000
6.666666 30.000002 18.333334 0.000000 1.000000 0.000000
3.333333 30.000000 16.666666 0.000000 1.000000 0.000000
1.666664 30.000000 18.333332 0.000000 1.000000 0.000000
